# 3D point list with one line of data per point:
#   POINT3D_ID, X, Y, Z, R, G, B, ERROR, TRACK[] as (IMAGE_ID, POINT2D_IDX)
# Number of points: 391, mean track length: 5.8638800075230391
25065 1.3657831307000177 1.8898345943213788 3.3933956070183413 59 55 36 1.6851484636855527 91 508 85 899 84 150 80 254 79 633 86 1533
25064 -0.2280888619711281 2.5152708488781781 1.5132598298412316 125 106 127 2.4893457538900532 70 340 73 272 71 177 80 203 78 355 79 414 70 598 63 95
25061 0.14127006871721476 2.4945938480995768 1.6002684543719725 74 62 64 0.61759762245305472 80 258 61 238
25057 -1.6575461470768083 3.8590187208472373 1.2896847589160632 213 147 161 1.5200222607937119 71 269 84 194 65 389 64 149
25056 2.8724407780916081 1.029077090123435 2.5166122822447408 189 174 145 1.2675980644785603 80 227 70 312
25054 7.9277543496332319 2.9997226520109574 4.2156120368943721 101 98 78 0.57193255448683178 75 92 80 201
25049 0.10156974342448662 2.5138995522345797 1.571946900175516 62 47 50 1.8648715239125908 75 143 77 358 79 653 80 185
25048 0.32551274534797026 2.4176246783211268 1.7428865384697516 68 59 64 1.9045081459884563 76 294 80 184
25047 1.4684131174355461 1.880481049677764 3.3811217427705547 77 72 32 0.98956991287892904 75 370 80 183
25046 -0.14787912366548112 2.4285924783529182 1.4813422473317299 190 165 181 2.0448415764132961 72 311 77 329 80 180 73 195 70 351
25045 -0.27279559809674758 2.4744092142718364 2.5949077071015347 194 183 200 0.1157890377825795 91 406 81 44
25044 2.9210617088258166 1.9061075003251338 2.9217136748824606 0 0 0 0.50557090494210277 69 46 77 369
25042 0.36049344562664137 1.9721652191622352 1.4694195776211658 0 0 0 0.4248349284977565 74 422 82 199
25040 -0.2198652291114242 2.6055922230212087 1.5266786307328486 45 34 32 1.1238084286910848 78 358 79 645 80 126 82 641
25038 4.1893218892346518 2.5267530223892827 2.7957315266760885 148 127 100 1.3525831776304134 82 213 84 75 80 114
25037 1.7592165025188418 0.52972707800746821 2.0494570588091614 98 70 33 1.3979389327483021 71 97 80 113
25033 -0.42463847901167634 2.4951721493666699 2.0324559299534051 0 0 0 0.8557351804748623 74 403 78 535
25029 -0.45467031877075187 2.4584686881925499 1.996290630164159 0 0 0 1.4184938219187579 71 160 77 119
25028 1.4549615801600471 0.88616243033313236 4.011343457080871 0 0 0 0.37939761704642477 82 133 83 52
25027 -0.51248638124679979 2.5312364475805822 2.2282190570677454 0 0 0 1.8064040386831706 71 55 75 70 73 73 76 51 70 70
25025 6.715250151778573 4.0081081530055815 3.4224333283968016 117 91 66 2.2228607511655456 74 44 76 36 80 50
25019 6.6212341168572744 3.2236008272315084 3.7497132540785274 0 0 0 0.56196179699215465 73 13 77 26
25010 -0.50010270965032755 2.651885553827853 1.9925012239090203 0 0 0 2.1378824885437715 70 322 76 131 82 579
25009 -0.41623362249080276 1.5872369532508743 2.0779739794426377 104 93 110 1.6703927449739839 83 186 84 148
25008 0.79265935458484904 1.1847661949533737 4.3931322140453215 0 0 0 1.379850032658313 82 80 86 681 88 385
25007 7.9719836679076153 6.0359458117550364 3.392946273752516 0 0 0 1.5276291279404826 76 13 78 14 74 18
25006 -0.53142646858168785 2.429599388948954 1.9974799819242766 160 136 161 1.5650089021791185 77 78 85 55 96 29 131 36 95 32 93 46 92 43 89 49 91 47 90 40 94 32 84 48
25004 1.5618558383200891 1.9251848460059058 3.4201133638996546 106 102 77 2.5977154360773169 85 934 84 231
25003 1.5242189438727549 1.917101205249983 3.4133901792015453 101 97 62 2.5181852580762039 86 1264 84 230
25002 -0.27795017057792537 2.7957192847649082 1.8095274769897849 192 175 185 1.2698404965802514 86 1020 84 229
25001 -1.5590852645454414 3.9183059075393585 1.2205964867924957 68 44 47 1.532525978490068 78 482 80 239
24999 0.025222542753173514 1.5320696259517788 1.833974363461305 96 87 90 0.47670100025919138 85 877 84 205
24998 0.16868391718949982 2.1997096591490322 1.3898958748643482 0 0 0 1.3772102652842195 91 548 90 798
24996 1.5191631143961293 1.0335115939489881 4.1746239206152698 146 153 146 2.2859931489129863 82 567 84 187
24995 -0.33618081499731256 2.7364931630815121 1.8534946051772676 182 151 176 1.2796198583355434 91 420 84 186
24994 -0.041741285960199173 1.6818162368282439 1.9716575187422594 99 90 101 2.637960151924049 91 527 84 179
24987 -0.89448167100095732 0.96732947134853753 2.0963143665033903 0 0 0 2.8688192377217878 70 551 75 309
24984 0.75548757787988818 1.0630343721479438 4.2508953820442441 144 150 140 2.1609851213736513 82 90 85 859 84 134
24983 -0.50376185406894103 2.4244030472867681 1.8732450655551429 0 0 0 1.4539275052874776 74 221 75 372 88 392
24979 2.6399857570988585 1.7444340262905926 5.0967286966302554 147 154 147 0.50706064287070385 90 50 84 111
24976 0.47600284457236081 1.9847728557780293 1.6315745815117915 0 0 0 0.68389678981875468 74 242 82 483
24974 -0.420741338040095 2.6763868735111052 1.8746157089479969 0 0 0 1.5346036900203035 75 481 79 427 86 1507
24973 0.34166468165971087 1.7938041407890126 1.6402976295214307 0 0 0 0.96869087404138787 86 434 88 275 91 158
24972 3.3780539923642485 1.2523295882422634 4.150840048139643 122 123 117 0.17025391122625505 83 129 84 80
24970 -1.7436652964609649 3.8550528170051113 1.1780316830785102 0 0 0 0.87220048533597838 69 51 73 63 84 57
24968 2.0076255931190472 5.4834399542612511 -0.29241879619077732 156 135 104 0.72087659579225782 83 48 85 76 84 52
24966 -0.41811340485445742 2.3409239484838213 1.5308773146297776 0 0 0 2.9102200825652234 85 35 86 55
24965 -0.44039240472911428 2.103938700573877 2.1124154930865187 231 220 236 1.2615147912379281 67 28 61 29 58 37 62 26 65 26 63 25 60 32 57 30 48 27 49 28
24959 0.14961264338099306 4.374493260860862 0.43624483425672045 79 75 66 2.7590152280515667 83 8 84 8
24958 -0.4292383756278636 1.6853910622475798 1.9456224018014376 232 221 238 0.35215766694132145 86 2 84 4
24957 -1.4424966189884838 2.1169185317749273 3.5130741834860868 26 45 51 1.239760814851363 72 392 69 311
24955 -0.87313072681535986 0.50097558373652273 1.6616965166817432 226 219 236 0.33776511046910829 71 61 69 98
24954 1.10710457579692 1.0766118406155474 4.2680721195644296 156 146 111 1.1340242534510587 71 242 77 168 69 93 70 149
24953 1.2731916531286862 1.1553248095467035 4.3164076727095644 85 86 78 3.2598826602073041 77 63 69 74
24952 1.745116850487644 1.1145343556500158 4.2578230168436821 80 80 70 2.8764049714684701 72 68 69 67 73 120 67 308
24951 2.8551693747175899 1.3287977847832635 2.8501826107383561 106 76 40 1.9870821387482409 78 421 69 58
24950 3.3638675304035659 1.7947456470462881 2.7133946689438155 0 0 0 2.87544609873928 68 27 71 24
24949 1.6613653499346315 1.1498284540502501 4.3376965852144496 156 140 89 2.4255406376519288 77 49 69 28
24948 3.1226720111741084 2.3444980001217601 2.8593630615287053 0 0 0 1.832216622786248 82 17 85 32
24947 0.041822280670486003 6.3189387721270442 -0.15490080849008717 112 91 60 2.4760641817607274 71 18 69 15
24946 1.2257622287148078 1.1132565759248985 4.1733860787477637 86 87 82 1.5699762092851097 72 5 69 3
24945 -1.6103555374416676 3.7615196863535063 1.2943938963572819 72 42 48 2.2939099538668857 86 1480 85 1044 87 1217 71 373 69 301 73 376 82 557
24944 -0.51359760667076637 2.415902972871367 1.8792258403253141 174 124 182 1.9008576442915481 82 595 78 532 69 219 79 625 78 509 68 404
24943 -0.51519157422682671 1.792470792026539 1.7289780056753914 134 105 136 1.7160317685793804 74 567 82 692 86 1556 85 901 82 631 78 531
24942 -0.5223739219904151 2.3425591702093582 1.9558807093073822 97 69 105 0.94677649798467278 68 223 73 247 86 1014 78 368 77 417 69 182
24941 0.96280511612662956 1.0869060563789132 4.2680439219025041 97 96 92 2.4353185432022331 71 104 69 122 73 295 79 291 82 92
24939 -2.3478128040590445 2.2231997413037399 2.8337103357301956 52 51 47 0.46567861387744514 68 343 69 317 63 244
24936 1.2566593388732421 3.7060187097412212 1.1648581971518466 160 176 101 2.6728663739753591 70 973 69 309
24934 -1.6023072852706286 3.7495340945811044 1.2970524640957719 72 43 47 1.9704232594358155 68 398 77 309 85 1047 69 302 67 216 64 151
24933 -1.7505018942564188 3.3393577175649938 1.2850771217208503 83 46 47 1.9221605970399713 70 985 69 298
24932 1.6248483853786058 1.0893070810463583 4.2438428265095256 97 93 81 1.4664253824958928 82 568 69 289 81 156
24931 0.51366281046329265 1.0618943108803622 4.2642292314941459 97 92 85 1.0988863757949208 82 527 69 276
24930 -1.4033939319919815 1.7613258721048635 3.3727482689063928 47 65 70 0.67189383503263878 70 612 69 270 58 242
24929 4.3921728332269669 2.59293765121522 3.0916577644814827 0 0 0 2.8936158173952591 68 278 75 336
24924 -0.455495019030844 2.665808651076873 2.5018701048366512 92 83 103 1.2421243658030214 77 352 65 333
24923 -0.52393189855380862 2.3125904566232895 1.9725816154049582 164 111 171 0.99240802967978092 68 334 72 337 69 227 61 319
24922 -0.53357171817297211 2.3602843087243648 1.8884427980400196 160 116 172 0.0012480916156157066 76 320 69 221
24921 -1.5995848023468133 3.7262977202400278 1.2150807234850183 0 0 0 1.7923942462090809 70 564 79 301
24920 -1.5510050750242113 4.1043894694548193 1.1586369464490591 0 0 0 0.065535546821339968 71 265 75 317
24919 0.15589880282458968 2.3879263276804341 1.6319179180344252 64 61 56 1.5683997050503842 68 89 67 82
24918 0.2244331994909326 2.4355604323550262 1.6792876370763397 60 54 56 0.65661427165895281 76 293 69 192
24916 -0.49056200931000132 1.8793530148262934 1.8388881441355216 210 201 218 1.4832841292088894 70 182 78 109 69 186 61 253 58 257 57 170
24914 -0.50481569942550408 2.7893776905265808 2.3699237403015392 40 31 41 1.0983365621039536 76 206 78 219 69 175
24911 -1.4035318785132083 1.7450162138705092 3.3789661902863313 42 64 75 1.5980249646457583 72 230 69 153 68 153
24908 -0.41312159747467142 2.1724261256118655 2.1122049753019527 228 222 236 0.88459431769011798 72 187 61 135 58 112
24906 1.2939922506230563 1.7672524597934705 3.4097691237149257 228 215 121 0.65995473206114608 80 171 67 169
24903 0.23273016803817503 1.0487360034146453 4.2697007453132541 133 124 110 0.023498036099461515 82 236 69 114
24902 -1.4030143578427898 1.7599516463558842 3.3569551841167122 53 66 71 1.4143624777547714 70 258 69 111 74 129 76 171
24901 0.35334962137214038 1.8453526374601499 1.6156380676921647 205 195 201 1.1582526389616068 71 82 78 124 79 208 82 147 69 101
24898 4.4878275121579065 2.7318645889152435 2.8734598597428413 164 151 123 1.1515702638528649 68 138 72 133 73 110 76 161 70 210 74 164 75 139 69 83 71 123
24892 -2.0746214240850511 4.8759450187654423 0.07230657838054845 49 31 9 1.5591798879916141 72 41 69 33 65 29 63 29 64 23
24884 -1.5784021098609902 3.7747856462346889 1.2821714361471666 46 28 31 2.7034621996693744 74 552 79 434 72 486 87 1235 93 170 69 303 64 70
24883 -0.98018681416619402 1.6268436845375929 3.5528777571988974 158 158 154 1.2541755736930695 70 1124 75 457 74 500 72 459 76 377 73 349 71 391 68 407 136 593 141 456 138 402 134 323 132 348 130 633 129 936 104 549 127 349 124 684 125 404 98 581 103 264 106 320 123 331 122 371 126 167 110 363 96 217 111 291 102 264 109 259 97 303 108 213 120 254 119 213 95 294 107 211 121 192 113 209 114 225 116 187 112 145 118 162 115 161 117 158 93 259 92 179 89 407 90 1282 88 614 69 315 67 277 65 298
24882 0.28268523070246387 1.0254009507340653 4.2542298483212475 86 68 52 0.75959579549052514 73 336 68 408
24881 -0.4238047148767336 1.997577367967412 2.0449668928086413 223 213 232 1.3798500833020908 73 379 68 396 62 243 52 153
24880 0.6178713929387265 0.94235569249276918 4.1600912028772408 142 126 113 1.1578906000954594 71 238 68 366
24878 -2.1228854377191579 -1.9970696761021902 1.4537305950958133 112 111 109 0.739158718401971 76 208 68 357
24874 1.2173111633000262 1.0742968206267498 4.2974192576271175 181 157 113 0.97315431412497977 71 371 68 333 70 523 74 302 75 296 76 281 69 237 67 151
24871 0.234035261863549 1.0301779912190947 4.2602575953021455 103 82 58 0.77678197549111805 78 479 68 310
24870 -0.49488072966276619 2.7288577378661816 2.3842601232224938 171 151 178 1.107273787518624 70 405 68 308 69 236
24869 0.44539445091536251 1.0651085520546348 4.2863432452200128 115 83 46 1.5801589566884171 71 322 68 303 67 195
24867 1.7866933797625921 1.1081780691955931 4.2653288060155985 157 149 129 1.3660343384985918 68 264 71 252 67 228 65 89
24866 1.8358455399260099 1.1360960851701671 4.2778021431492412 90 87 82 0.8029369443726162 71 300 67 310
24863 -1.5793922194010048 3.8433400773669382 1.2038928568219582 69 38 38 1.5269887043232362 71 272 68 245 69 218 67 185 65 177 57 283
24862 0.22106563731751167 2.3833571791466119 1.695835603620846 62 51 56 1.4938639614410949 68 231 80 187 64 94
24861 -1.5881175234364209 3.8383197164469807 1.1793526971478903 72 44 43 2.2620576889860442 75 316 69 308 84 137
24860 -1.5947857133805923 3.7655338957342348 1.2669405142778647 205 140 154 0.97626588279966109 79 300 68 225 84 136
24859 -0.50255679500615025 2.6074367289141223 2.1454557559203407 164 127 158 1.9669947890659796 72 120 62 157 58 298
24858 1.3762618343312543 1.9101432929772768 3.4185755628859407 85 79 55 0.58081317391981613 76 343 80 253
24857 1.4224540545297986 1.8932243821784476 3.5044531310095093 83 74 41 1.571690528180012 72 345 68 209 69 293 71 292
24855 0.38251422585028927 1.0753729093384508 4.2982133082420448 95 71 43 0.72320853889591008 71 399 68 164 70 499
24854 0.34917167321105935 1.0554923647703529 4.2706257034322705 137 126 118 0.84460129725967248 71 197 68 163 69 116 67 241
24853 0.2788646407587318 1.0594749348239318 4.2763640647719425 138 128 116 0.50247658848212462 71 324 68 158
24850 4.5522012408424946 2.7526026557329044 2.9289339156284817 154 139 110 1.4060908697370575 71 193 68 137 70 140 69 82
24848 0.52147240979858467 0.87671539839016754 4.4377770872447755 127 95 48 1.3504986098555183 70 250 82 370 68 106
24847 1.4440008483035571 1.1224332406949413 4.296354054545259 132 120 94 1.3702722406473291 74 210 68 92 75 161 82 559
24844 1.8189239999281137 1.0996676126227312 4.2504041394757559 93 94 80 2.1076785119323231 71 415 82 270 74 463 69 232
24843 -0.017724411594907289 2.587030350893917 2.603386487485515 236 227 246 2.1445162725981994 71 156 73 169 68 55 65 37 58 47 62 40 63 35 50 27
24842 1.5317424218110687 1.7847280423163767 3.5640365535085157 83 81 69 2.0225798755137241 70 97 72 118 73 102 68 54 69 72 61 45 62 41 65 52 63 54
24841 -1.7764413001128354 3.8310863272757403 1.1978986064347272 66 54 54 1.7375568546682165 73 101 78 70 68 51 79 77
24835 -0.4393633990010396 2.1160447957706658 2.021997348013115 163 103 173 1.7599177671054342 70 16 72 13 73 18 76 17 71 13 69 8
24831 1.4657925145220949 1.8383929749354788 3.4770746763172977 207 199 98 1.5191288748698129 86 25 87 22 85 16 82 16 83 23 79 18 78 16 74 16 77 22 72 20 73 19 70 18 96 18 111 7 132 20 130 21 128 21 129 18 104 16 127 12 124 9 125 14 98 15 99 14 103 15 106 10 123 14 122 10 126 14 110 9 102 17 109 10 105 14 131 18 97 21 108 11 120 5 95 16 119 6 107 8 121 7 113 5 114 3 116 4 112 6 101 15 118 5 115 4 117 5 100 14 92 14 89 26 91 24 88 18 71 15 69 13 84 23 80 21
24830 -0.1267673689922531 0.97591109650329455 4.2204732544751744 126 94 63 3.0750736500897347 78 98 71 381
24829 0.73289209043021641 1.0688407177352268 4.2578979625746483 99 99 91 1.726871444078752 79 173 71 131 82 165 68 127
24828 -1.3568527925223051 1.8604735625636297 3.4745365675798561 60 65 62 0.15354590541281571 70 156 71 125
24826 -0.49125244972768722 4.7398939612394573 0.11640182190156818 121 96 65 1.990902482848244 70 60 71 33
24823 1.5102774084110966 1.9610729246665906 3.4392615297115841 76 68 46 1.7138982975435582 78 457 71 380 88 583 85 864 77 240 73 340 74 331 68 115 69 107
24822 0.26288815133093579 2.3037286582619596 1.6129052239831596 110 92 110 1.5569318069196343 71 282 70 1057 72 421 79 401 82 652 68 322 84 208 76 300 80 194 64 114
24821 -0.092480554808727064 1.56617745428717 1.8655502569245725 109 93 114 2.2322554949207825 78 359 70 588 71 263 82 441 87 1065
24820 1.0205047068051751 1.077148736361567 4.2561834944189796 101 102 94 1.6939159947205904 82 386 74 299 76 280 70 295 71 310 79 292 72 271 69 170
24819 0.54473832604954509 1.0646000451804267 4.2625615341827325 103 103 98 1.8243546133413795 78 483 70 885 73 298 71 235 89 277 90 483 86 288 85 169
24817 -2.0487767461275168 2.2401127441162951 2.8235224189792802 79 78 76 1.5936003059513031 72 378 71 395 58 178
24814 -1.3659784251144147 5.9746509434507953 -1.0890924399579789 154 133 106 1.0741141576954694 70 306 72 301 71 352 73 191
24813 -1.3802798315220448 5.9162260350729987 -1.0600980208640014 80 59 32 1.2217034771566411 70 309 72 406 71 351
24810 0.11815979586099086 1.0234349828032081 4.2605651648002825 119 89 56 1.1098644572732872 78 451 71 329
24808 -3.2399751467311653 2.9115358353803207 1.9316148932522252 100 99 95 1.904155855163943 70 830 71 321 72 373 74 176 73 207
24805 -0.53907498084825811 2.3070931176065583 1.9911917553936271 170 152 175 1.7299436686487684 75 475 82 582 71 284 69 299 58 303
24804 0.58898507055596083 1.0290056479003498 4.2382323328870797 148 129 109 2.0485392331759802 78 253 71 283 68 362
24802 11.721388090808691 7.6644808297916702 6.5966957469594503 125 93 55 1.8361387533787932 79 481 71 281
24801 -0.48526443579302375 2.4117331330833465 1.734028042254314 192 179 201 0.19586836323357049 73 297 71 279
24800 1.5663954737354444 1.8330903110606389 3.4840524924503882 88 88 60 2.323741331777788 82 437 71 270
24799 6.4503963039577679 3.7151364437029506 2.9033680402867588 117 98 66 1.1885966612321814 77 181 71 261
24798 0.035090286473317633 2.6111252831204346 2.602515032806838 111 98 126 0.81449852887944529 70 314 71 258 69 179 61 132
24797 -0.49064748529366703 2.8296151931113815 2.3090995662817755 165 133 166 0.91497561390475746 82 387 69 178
24796 1.2984306584723699 1.0987033972817721 4.2781579982857147 153 143 113 1.1809711404181136 70 528 72 413 71 244 67 153
24795 0.65768066633884381 1.0018279436286595 4.2019855486451059 0 0 0 2.8847290210482663 75 463 78 391
24794 -1.5941595139737375 1.7484519097732709 3.3390942228718457 57 70 72 0.98104848459464689 70 160 73 142 71 213
24792 -1.8198408358919309 5.5676152926303342 -0.63563412007108933 121 97 69 1.6374150842476893 70 640 72 203 71 192 68 149 69 145 65 77 63 84
24791 -1.5170055172035941 5.7061920402148596 -0.78589192936871821 101 81 56 1.0074674768761716 70 395 72 297 73 156 71 191 68 174 69 208
24789 -0.49055767474484691 2.4633374967383848 1.7399237173834234 21 17 18 1.4745891215230731 70 183 74 338 71 171 68 122 61 141 65 185 58 117
24787 -0.49754031825199196 1.8892769533776934 1.8648034603795773 166 110 178 1.6837656026458803 70 1007 72 333 82 616 71 168 69 185
24782 1.1373084992526081 1.0802950533556523 4.254293227758402 95 95 88 0.17768509919133665 82 129 71 106
24779 -0.73262731227544642 5.0073810491175443 -0.05084572147396603 0 0 0 1.6904554866555264 73 85 77 81
24778 0.33876127544311541 1.8021271813768169 1.6627300292485425 205 193 203 0.62662956571745954 70 127 72 128 73 129 71 90 68 61 69 100 67 61
24776 1.0402543424022532 1.0580048304401068 4.2356853389625773 89 90 80 2.6430809526051386 73 230 82 543 71 77
24775 -1.7012663738198919 3.3930904359794059 1.1470932262398612 62 57 54 2.9289146414303531 74 106 75 386 71 76
24774 -1.1722465532071495 4.881239535814335 0.10033805629100548 64 44 18 1.8547281813526892 74 72 75 85 76 77 71 71 67 39 61 38 65 61 58 41 63 40
24773 -1.183302484763247 5.1879868428472982 0.054343071911485352 64 44 21 2.78031896182996 73 83 71 70
24771 1.3131923314953378 1.1088621010184405 4.2667474069748526 81 84 77 1.5830594588744364 70 76 82 56 71 50
24770 -1.3699006124467177 4.9638473013258588 0.08327524186936329 57 38 11 1.8579778305184131 70 83 73 82 74 68 75 89 76 76 71 49 68 38 58 49
24768 -2.1878447307493234 4.939052580970424 0.056202498841847984 42 21 1 0.48938739105323092 70 36 72 36 67 24
24765 0.2665329598220097 2.3916660982133853 1.6698778922625193 72 68 65 0.8696473061693657 85 19 80 25
24759 -1.4716672347599826 1.783821601894388 3.432423895324737 147 189 214 1.3937821184928814 70 10 72 12 71 10
24757 -0.13717905133921182 2.424901709386738 2.1891700346110325 232 227 234 2.1476803744510451 70 1 75 1 77 1 71 1 68 0 69 1 80 0 72 1
24755 0.90223118744257602 1.0426790276651206 4.2396043011739488 168 160 135 1.1555976792879781 79 289 73 362 69 168
24754 4.2450378811043024 1.6608997590622905 3.1308845844337374 101 74 45 2.9209740024203166 79 225 73 338
24753 -0.46572362117165528 2.4115307471664233 1.6895987003371125 194 180 205 0.12015448621294776 73 277 71 264
24751 1.7533367238189153 1.2063018683477058 4.3839604336392934 0 0 0 2.1363321493261527 70 41 72 33 77 96
24749 0.34392650286218412 1.822887016676114 1.6333178211542521 213 199 212 1.0751931509268404 82 196 79 206 75 261 73 182 88 180 69 85
24748 0.17930886298623755 2.1947238715537281 1.3280040159176656 203 192 211 1.9146763319308679 74 597 75 376 82 324 78 336 77 239 72 270 76 235 73 107 73 258 76 84 68 135 69 142 80 262 61 97 67 63 77 86 66 105
24745 0.76863392929697927 1.0779615761943913 4.271519451594525 118 114 105 2.0065508753966963 82 411 73 358 79 286 71 406
24743 -1.4402941211490681 1.8268694941821748 3.3664746160789489 0 0 0 0.31496773647812271 72 231 85 886
24742 -0.46260689675603572 1.9484282771472747 1.9106291393595032 199 174 208 0.87654801545120931 85 900 74 565 66 116
24738 -0.63121779373197795 5.1446297578942088 -0.099962240420230913 0 0 0 0.30122715616453855 83 169 86 721 84 91
24735 -0.50478090281283772 2.766736387183458 2.3833234644311054 39 26 43 1.57691196821597 70 966 73 289 71 254 69 174
24734 -0.51850717447556727 2.3071163286687506 1.9862999923666378 159 112 167 0.70122543020091088 86 1244 73 281
24726 1.6872040128474464 1.0343277501692121 4.1877584370728789 111 106 97 1.1272070646422658 73 233 69 126 80 56
24725 1.5226232216592228 1.0840461520979792 4.2412619111715086 0 0 0 0.2452475641082531 70 170 82 263
24723 7.0259885999017833 4.1395033647738462 4.1661446144566341 0 0 0 1.2910942978826601 70 132 85 63
24721 -1.6437300807191022 3.8594389078784808 1.3013924213255639 0 0 0 0.27647343785516776 70 986 82 393
24720 0.16260470425606122 2.8629413962240933 2.698181035160256 0 0 0 1.9545207900678916 76 148 86 686 70 177 74 110
24718 0.94048948456670634 1.0537171282675692 4.2515529655271216 182 172 138 1.1364057973973982 77 167 82 91 73 162 71 149 69 169
24717 0.50583744906785 1.0481645984281647 4.2605613797563375 155 142 125 0.3851562118683442 79 282 73 155 71 234
24715 -0.89509699034237222 6.2000309829869993 -1.315881627478219 101 80 53 1.6317054479740012 74 127 77 134 78 217 73 112
24711 1.1734198962643738 1.024980375312573 4.2187539999820389 160 149 117 1.8683945591258972 70 147 71 169 67 302
24709 -0.51937117260258603 1.7759377107443775 1.7007752096533677 174 123 189 1.1627413456108897 82 86 85 74 71 84 73 80
24708 -1.6049448223441614 3.7418358662971842 1.2788862820990961 212 140 165 1.8922979183717927 76 68 77 77 82 94 73 78 71 75 72 98
24707 7.6798235081294743 3.4781872668965286 3.8246318311307621 0 0 0 1.7100167879247248 75 48 79 63
24696 0.10535135195965466 0.72948928831986115 4.1124446327163895 0 0 0 0.56049196868835371 74 6 79 21
24695 -0.7100299704100439 4.7175854479934642 -0.015385413595017444 130 104 71 1.7521173082446122 82 6 73 4
24692 -1.397739384659783 1.6776611947930831 3.4526948306727325 53 72 78 0.80073812829142188 88 245 71 145
24691 -0.70442910214845533 1.8856814505908766 1.6184052475430766 201 182 210 1.2512865731821732 75 368 76 262
24690 0.5637424603096628 0.73131569658010154 4.9017922209408367 129 109 72 1.8449761573490275 72 219 74 273 75 282 77 209 76 245 70 235 79 166
24687 2.1719527491508317 1.1930748767525678 4.2962789178541936 97 102 98 0.082660669877966969 76 41 80 40
24685 -1.4062657752401782 1.7065186519462208 3.4168261353068283 34 33 34 1.4446408504587622 89 253 76 374 70 438 72 226 86 613
24684 1.7573703791438573 1.0799091645619665 4.2406323456264685 68 66 59 1.3175850127235553 82 573 76 89 74 76 75 166 78 171
24683 -0.026096936256901605 1.0323654068842159 4.2631745414665652 106 100 96 1.7036720213311465 78 470 70 771 72 453 76 322 79 570 82 503 73 350
24682 -0.14236104271074262 1.0035271304211522 4.2844956009137176 154 122 79 1.5859888684585237 82 156 74 186 77 156 76 258 78 412 72 384 73 308 71 211
24681 0.26418207298964913 2.3085365738091426 1.6617101700310275 190 156 194 1.255757055996906 75 249 77 250 72 319 76 216 93 143 90 517 92 85 88 397 83 163 94 131 73 255 71 180 67 193 65 146 63 99 64 61 66 56
24680 5.1935218836850696 2.0634631688613418 3.5211668786337613 93 74 42 0.30003464229300836 77 349 76 402
24679 -1.5871027380512825 3.8562939597088475 1.1644903628658076 61 51 50 1.1391061686128148 70 995 88 609 69 216 80 115 61 155 65 395 62 197 63 94 64 92 57 112
24676 -1.3254933340318042 2.0169775069047469 3.1328464000547016 72 70 71 2.0186781624734067 78 464 76 380
24674 -1.408673908504368 1.7679549394981837 3.3350674744883197 0 0 0 0.78232706638556682 72 446 88 600
24670 0.27165380084964413 1.0402647982619087 4.2735563646961019 104 80 52 1.4190051207185095 72 251 79 272 76 361 70 221 73 216 71 138
24669 4.6084078703833908 1.6998175735457612 3.6915169322336832 94 69 39 1.2439652097669103 82 699 76 355
24668 1.3555949402347984 1.805842840219583 3.3425375386572393 0 0 0 1.4984437025100046 79 425 82 694 76 345
24667 -1.5842061214685683 3.823241465521662 1.2092584966929087 64 42 41 0.69688677739027927 85 605 76 341
24666 0.12599061820447655 2.1150767805761315 1.5008446875068819 0 0 0 1.1337820433600525 74 237 77 261
24665 -1.7197296267236872 3.7467690243966372 1.2968709037363317 72 44 46 2.0302412876287974 72 484 74 317 88 382 68 251 80 222 69 297 67 220 58 319
24664 0.56216220208317425 0.91425312646540957 4.4381287926737514 120 95 55 0.87287055908587197 78 396 68 103
24663 0.7148601917832017 0.82597331892943959 4.5889919474373322 171 156 113 1.7804692777176134 70 483 72 253 79 279 76 328
24658 1.3553472195136154 1.7861669958077435 3.3343133646717074 71 67 37 1.7968163093570766 82 436 76 292
24656 -1.7648060666327756 3.2498049761368049 1.2787385120713557 69 48 43 2.104233079005267 75 471 76 284
24655 -0.51385887085905879 2.156496174013955 1.4902239451717312 37 27 33 1.3539628745677508 70 403 75 351 76 268 73 305
24654 4.2989740393715952 1.5078187748326803 3.3055754550301293 77 52 21 1.0639594310199243 76 254 80 154
24653 3.3956469331052825 1.2720763230966254 4.097036407100096 121 100 79 0.81273447836157642 75 246 79 334 76 228
24651 0.27160431120441347 1.6982634946688189 1.7045530924404304 0 0 0 0.99902709992279748 70 368 77 270
24649 -0.098758984307034864 2.8911729075877202 2.7227920050050947 0 0 0 1.0618868713001555 74 462 77 72
24647 4.1308937301023487 1.2806686455008203 3.4073477706936663 77 52 16 1.6668076923667476 82 219 76 168
24643 0.87406358978687715 1.0373447244566534 4.2354181376961177 140 134 118 0.83815143149990678 74 145 75 157 77 126 78 258 76 144
24640 3.4685327967149306 1.5848498614714868 3.8472747292533147 120 93 66 1.0768898591159679 75 250 78 81 76 122 73 126
24638 1.0121967037658577 1.0786277337796077 4.2691148764618578 144 136 115 1.1140927941453431 74 146 75 158 78 102 76 116 68 96
24631 -2.3126285987377995 -2.1160114966060495 1.2031562242241958 116 90 62 0.26796749052761726 74 570 76 65
24630 -1.4168299649658509 1.7786768165591527 3.3508459493480105 147 189 214 1.3362118490129173 72 66 88 69 70 98 87 67 76 56 85 136 73 94 71 66 68 35 69 61 65 40
24628 1.9847438219966944 1.1385413694339899 4.3011663505372475 137 127 102 3.0508441120093059 82 585 76 50 80 211
24626 0.21684192677439995 2.3027031064128898 1.6942137850381247 72 68 65 0.75952354572737601 74 34 82 40 76 31
24622 0.1444258226429273 1.9069627974307592 1.5074327068502449 183 149 186 0.10443552877240551 75 37 76 22
24618 -0.37265691634596487 2.3801155945880752 1.605273375075581 193 160 203 1.8201680312317763 70 9 72 7 74 9 75 12 76 10 68 7 69 6 67 11 71 8 64 5
24616 6.2761838864020199 3.6832846061242441 3.5303332173829425 92 65 38 2.8022876123557134 78 13 76 6 79 12 71 3
24614 0.6252889687686678 0.47892876718845662 3.3189952323362504 79 81 78 2.1723758497652508 79 3 76 2
24610 -0.064852879097873406 2.7055319054019353 2.6652257107226109 242 236 248 2.4015870169915789 86 684 87 742 68 112 67 170
24607 0.24472349193762349 2.2777558401439943 1.498634806068939 108 87 111 2.3018048010581436 86 1295 82 661 72 362 87 782 91 599 82 658 85 925 95 217 70 1066
24606 -1.3262844756657106 2.0136645586972097 3.1403868799946548 84 84 84 1.6165013970167148 79 555 83 225 78 409 75 417 77 379 76 265
24605 0.23536410411986702 2.2761175411794845 1.547086881182822 63 41 62 2.1074334152264562 75 359 88 572 79 655 72 357 85 919 76 221 84 122 87 1047 74 427
24604 0.25212293947260522 2.3052002560084679 1.7008572460651672 35 22 40 1.9562824565458237 74 380 77 333 85 872 70 1043 79 529 70 355 72 322 76 297 73 316 87 1068
24603 -0.4522631068430622 1.9543163638046221 1.9594451304358504 204 178 212 2.4152168435867853 93 121 86 1537 88 519 70 1000 72 419 85 1016 82 603 68 119 61 318 58 304 50 107
24600 -1.6067336383336372 4.0214992812156121 1.3216602591009914 0 0 0 2.281230871269857 75 473 77 395
24599 -1.6250956623091586 4.2417604339121331 1.3328314731111752 0 0 0 1.0026295606424858 75 396 79 439
24598 0.91444739230387462 1.0714231228333448 4.258875762917075 112 108 96 2.0134357349007383 78 488 72 476 68 372
24597 0.54631765492471562 0.91039511117377214 4.4247561753369373 162 140 93 0.31092649343662598 70 860 77 316 72 470
24595 0.48112517280335848 0.80094275447241237 4.5356367392146932 164 141 97 1.1722526418009038 70 904 79 476 72 462
24594 0.30500187031923998 0.63364336272420585 4.6678786191312742 159 135 91 0.26215846775692236 79 604 72 436
24593 -0.086053725129991335 0.82629748952841275 4.457113346031365 166 133 88 0.7012280553947372 74 385 79 547 72 434
24592 0.30821571888872967 0.59159245559576956 4.7613157764077139 172 153 111 1.529989802466061 75 422 77 372 72 433
24591 0.46063057839460991 1.0621842869602023 4.265274320871618 103 100 91 0.82208750457033053 82 378 72 429 68 170 70 509 69 243
24590 0.56881091212807255 0.8789880546062685 4.445531544222094 166 142 94 0.3591498399154946 79 455 82 376 72 424
24589 1.415413814303915 1.9299960656080055 3.4365248601973626 0 0 0 1.4904526856203284 74 454 88 582
24587 0.99748989520585274 1.1366911419673926 4.3276504676127985 160 150 123 0.38203122944788065 77 313 72 414
24586 -2.7238285822722155 -1.9895477725815114 0.88705857210549466 102 85 59 0.68616158443780961 78 266 72 407
24585 -1.5915447181759632 1.7510573527367832 3.3227022052274879 55 70 81 1.0468302749098453 88 575 72 396 73 342
24584 0.55709327026653077 0.64221935803259467 4.8053205606770524 178 158 121 1.0253861349607427 70 708 75 286 72 386
24582 0.23497997033706103 2.2612172289021872 1.5367850409731274 0 0 0 1.2397986909468315 86 1070 79 393
24579 -0.48421201294181909 2.7876645798561097 2.4235847746383166 48 39 57 1.65673049039742 70 965 78 446 72 347 74 539 82 398 73 339
24578 1.3844739881959653 1.8677841639772605 3.4675133821048552 81 76 46 1.9997783956308954 78 288 88 520 86 1526 76 319 73 241 68 211 67 223 77 300 62 238 64 126
24577 -1.5820604684306159 3.8284308163855907 1.2524541534016673 214 147 156 1.2224879184967616 74 322 77 397 84 219
24576 -0.49624669323821924 1.8827121459916165 1.8279520487799217 163 119 173 1.5597995529577744 78 186 79 311 88 396 72 332 71 107 68 227 83 258 62 247
24575 -0.094326114691726456 2.4583585520694791 1.4922687331439466 75 67 64 1.5317602774402166 79 649 86 417 84 90
24573 3.766339098002379 1.7402268091852289 3.7427934932534144 110 72 33 1.9354065896135109 78 382 72 320 73 330 75 262
24570 -0.47907314145021762 1.9284190467571911 1.8981944323786477 163 114 180 1.294004836182743 78 362 72 290 71 167 70 1107 73 341 68 121 67 183 58 310 64 63
24568 -0.51380562445315248 2.8316469725866429 2.2952005241683775 0 0 0 0.58865915680140923 75 305 82 260
24567 -0.43096704386341295 2.9115854069967235 2.4228321107757065 186 168 194 1.7272585645048657 79 437 72 279 73 288
24565 1.2013420768819363 1.0907056833792985 4.2645111460401548 110 106 94 0.67404333663889082 82 167 72 274
24564 1.1131790362747429 1.0841087234282298 4.2597202962750558 103 98 85 1.6652135340882133 70 297 82 248 72 273 73 118 71 105
24562 1.7114561518547746 0.4591375291474139 2.6038359226540044 133 100 67 0.89711454837338356 82 653 72 269
24560 0.36749248538048646 1.8396018025272858 1.6236936291907014 60 58 59 1.6292936160523876 70 372 79 346 72 239 71 113 68 129 84 113 82 321 58 86 65 108
24559 0.4443591112523958 0.55409236657375516 4.7295328882743712 182 163 130 1.4323936589479755 70 424 74 187 75 200 72 220 76 130 73 309
24557 -0.34533231348852794 2.4220434498050287 1.494619295464068 47 39 37 1.6164896765764962 70 186 86 1050 72 190 83 157
24556 1.8000638612228812 1.063499921443007 4.2253346202364144 143 137 111 0.36602201498775011 79 181 72 182
24554 0.70200939479882596 0.87178724559085075 4.5634367306165391 175 157 110 1.2418983695545063 77 123 72 162 71 139
24553 -0.15484956083627943 2.5245284541387316 2.6225888272629581 120 112 136 0.421312048242869 72 157 71 295 80 214
24552 0.40143757915370987 0.56935666887438618 4.7619199550201348 182 165 129 1.0106491655021983 74 132 75 191 77 375 72 146 76 129
24551 0.17715410535202275 2.4532685925741564 1.6298012034999649 62 57 53 1.575322768687935 72 125 71 178 80 197 70 356 79 329 82 307 61 157 60 182 55 107
24549 0.93889881011462129 1.0535171433164892 4.2320191736257575 0 0 0 1.8416908054117218 77 94 82 539 72 114
24548 0.93895159501354253 1.0674320480042341 4.2536418032846699 0 0 0 0.40118299325528517 77 390 82 707
24547 4.2301431321746907 3.070906638185273 2.276943129115562 156 139 109 1.4032749433206986 78 94 72 107 77 143 79 111
24546 -2.729224793279303 -1.9951557527658184 0.88488632791492505 85 69 44 0.12602536903365064 78 384 72 101
24545 1.5439790879931188 1.139187304506966 4.3147320676110121 177 164 120 1.4587592625000771 70 93 79 610 82 562 72 92 73 98 71 79
24544 1.3860754949555654 0.87722333108877104 4.4860507932586344 181 171 120 1.2582672410935505 77 127 72 87 67 50
24543 0.6466534520587337 0.91381633091444703 4.5201559513476814 149 123 74 1.1259680099152165 77 99 72 85
24541 3.7503197820055711 2.5610466174495312 3.1767966559020606 86 85 80 1.7105673041484897 70 128 78 419 79 214 76 111
24540 -0.014060768467236938 1.6306624713765978 1.8697782016856297 194 152 199 1.647735734795323 70 79 75 68 85 157 72 72 73 81
24539 -1.074802877283358 1.2901262315688447 1.8348027391568313 0 0 0 0.081045389524253428 75 95 86 1044
24538 6.2950939462356308 3.4822844372866655 3.0291479708437721 110 88 64 2.0250288628517459 77 67 73 90 75 138 71 54
24537 0.98532640067614274 1.0368536400540269 4.2447793492374162 177 164 119 1.3059721884124922 70 64 82 52 72 55 73 62 71 52
24536 1.2686054274421548 1.0711377041830621 4.2724415079257563 176 164 113 0.58450274351712661 70 55 82 55 72 54
24535 -1.9820728433622254 4.8871201568719043 0.075873021599917934 52 31 4 0.64899161079280177 78 40 72 49 73 55
24534 -0.15459736987935341 1.592561027196856 1.8520478085058734 186 144 193 1.8594406551232896 70 47 85 61 72 47 73 54 84 42
24532 1.6195953293975058 1.8571834700158554 3.5023149329146728 80 79 77 1.492737064370381 79 44 72 32 67 25
24529 -0.62649586989469597 2.5666327229483397 1.9564113607744682 29 25 16 1.6221428250102248 79 9 72 4
24528 0.38763219475203958 0.56716646981488283 4.7476784558293446 145 124 86 1.4300029796947928 75 455 77 376 70 229 72 397
24525 1.4112944848572702 1.0625250681129617 4.284758882993696 159 155 126 0.97789970473719035 82 36 72 25 73 28
24522 1.40418397291393 1.1250981940474432 4.3038094793048609 172 166 132 1.6063594448772436 82 704 72 90 71 108
24521 7.7922462527162013 5.5479175197012118 3.0700910014854643 125 99 64 1.4584110544265503 70 21 77 30 73 32 71 17
24519 -0.23101040795229077 1.7982926236295333 1.794261733396699 186 137 193 0.37141682658945718 78 11 80 12
24518 3.3566811118848441 1.6579320732380649 3.6956493937646102 161 154 146 0.73709997499399649 82 323 79 344 78 196 70 336 75 254 74 356 77 292 89 204 91 466 90 525 86 666 87 346 88 405 85 216 83 123 72 306 76 217 73 176 84 102 80 145
24517 0.2416732719713317 1.0294640336429348 4.2646294886848342 53 42 25 1.893525775435533 78 100 70 484 79 270 72 250 77 160 76 187 69 88
24515 3.4618486671170556 1.8086838988805862 3.6095044050001857 113 94 75 1.4201465450965112 82 123 75 131 74 96 77 107 91 241 90 216 79 210 78 334 70 222 72 124 76 104 73 317 71 175
24514 4.5964146870674378 1.7039223937671084 3.6849473167470101 88 62 32 0.89507905728583037 75 428 78 424 77 419
24513 1.3707780894298427 1.794492507710608 3.5220706407286535 79 73 39 2.2505039581488941 85 912 77 418 73 284 75 474 76 395 69 291 67 316 64 127
24512 -0.45033858207861482 2.5010705879547639 1.9783131272192127 163 121 173 1.4412012174678537 74 319 77 403 72 283 76 344
24511 1.3663565713334342 1.8427702318137651 3.4661443356346049 87 81 39 0.70085056524023959 85 1058 90 1322 77 402
24510 -1.5860876512725162 3.8109294479254965 1.2413593244176457 205 142 153 1.3056593856320753 70 563 90 1302 69 223 71 360
24508 -1.6583061984283829 3.7580377228274378 1.2946715571470271 75 50 49 1.9389491912569745 82 549 83 237 74 547 88 613 76 336 72 485
24506 0.015797740322394394 0.3380901935029656 4.174599758492886 117 94 53 0.062394046618979501 74 502 77 380
24505 0.36519524797226094 0.60152130283797545 4.6689169673674584 127 103 67 1.6848028236132138 74 393 75 419 77 377 70 700 72 440 76 323
24504 0.40949970649869044 0.63193801578272213 4.694767053033079 125 99 64 1.6344639777777008 74 394 75 458 77 364 72 441 79 255 78 240
24503 -0.49470631358554484 1.7153577602146326 1.6984985698082311 175 134 178 0.87860537682698092 74 382 77 357 76 348
24502 1.2958009636514836 3.9049411112548884 1.1589474845105117 72 75 54 1.9022179656907827 82 680 77 345 73 325 81 39
24500 0.33418958800913906 0.55401984326224885 4.737771529099029 184 167 124 0.95267417409137278 74 223 77 325 75 146 72 149 76 256 73 198
24499 -0.095844543249053657 2.6045151641275242 1.5076543433501854 62 53 54 1.4427252523709808 82 443 78 439 77 323 72 123 84 118
24498 -0.24113503755064541 2.4696386096734328 1.4964563534672468 54 43 44 0.92265678294297826 75 361 78 354 79 647 82 292 77 320
24497 0.62126330751741932 0.77028447563317259 4.5517071127368718 168 148 111 1.4606191245184403 75 291 77 318 70 269
24495 0.79642768013640808 1.0746396982548285 4.2643087562885791 118 120 109 1.5984431034632844 82 166 77 314 72 267 73 226 70 513 68 181 69 241
24493 -0.29036151226111517 2.4636166622995628 1.4979107447500899 47 39 36 1.3728145581744535 77 312 73 312 69 188 84 156 70 596 74 342 67 189 58 124 64 74
24491 -0.044265208147363413 1.57441228477249 1.8994023276302308 93 83 93 1.7611787768201299 90 788 84 162 86 1293
24490 5.9033120406851749 3.2801881544737008 2.8643979448568295 129 113 80 0.16954333349240919 70 154 77 288
24489 4.7716530761696605 2.2641085031637318 3.1995281256557657 134 108 81 1.0046838529786335 75 252 78 324 79 339 82 459 77 287 74 262 70 394 72 405 76 167 73 270
24486 3.6510041293034736 2.2021440603031901 3.225226028698077 149 116 75 1.1685335092856095 74 244 78 205 79 215 82 204 77 274 70 223 72 196 76 238 73 134 71 182 69 138 65 160 68 125
24485 3.2061690607243376 2.1137288532853793 2.9984846838056369 144 125 99 1.787401645400964 70 84 77 273 76 80
24481 3.4020249771355586 1.4308408363277501 3.9270405808319775 131 101 65 1.214624260226483 74 167 82 315 77 256
24480 3.4656842946973443 1.4290308022391824 4.0122069110297032 162 144 115 0.8921991608239831 75 248 78 304 79 340 82 355 77 251 76 185
24477 0.29122524575426656 2.4420222139131758 1.7443732890960331 75 66 69 1.0100907399833563 74 439 76 289 75 346 84 204
24474 1.5926416720285119 2.0850995600195237 3.5913629254877963 0 0 0 3.6626595789595715 74 105 82 250
24473 1.5357705698489827 0.92787277826407288 4.0644819908411183 105 108 97 1.2893268617820559 78 500 91 673 77 226
24472 0.40043290724107583 1.9224672230872102 1.5737858317528903 61 57 58 1.7475549234916925 78 332 76 310 70 197 77 223 67 85
24471 0.33511624937808954 1.8136443392610102 1.5979902562695767 66 62 62 0.82968682231943247 78 225 82 484 77 214 84 103
24467 -0.18936793553245973 2.4153961499075414 1.4753693804758654 62 57 54 2.17805505383095 74 346 78 351 77 179 76 183 73 194 84 178
24461 -0.23686228682958577 1.0332044265527411 4.2709626898608644 140 131 114 1.7599697580020017 70 426 77 152 74 249
24460 -0.54783520138917874 6.215838100992908 -1.383725263154898 141 122 90 1.1368857600482376 75 338 78 146 79 223 77 149
24458 -0.48381641458039298 2.4931423188594692 1.7675908465706032 26 25 21 1.1739788502595949 70 404 77 132 69 135
24455 -0.15099526147937098 3.0106343528878448 2.1466083634960693 167 107 181 1.2622798482696909 70 75 74 62 78 107 82 101 72 63
24454 0.16838160760479426 1.0504912549007621 4.2742380062696821 147 139 125 1.221648184289148 70 476 74 111 75 120 77 118 72 160 76 91 71 140 69 87
24452 1.5976728080147216 1.1061847204377386 4.2575419261426131 94 96 91 2.0677576640442692 82 97 77 95 73 119 70 171 72 93
24450 3.2597071573617753 2.1533778331501336 3.0628627944558717 93 93 91 1.271078800230979 74 88 77 83 76 110 75 104 71 87
24449 -0.51125356039493797 2.6202855945195007 2.2805590376131013 0 0 0 0.65128770919193779 70 96 85 73
24446 1.4974996920292654 1.799832562223961 3.5868052043061192 0 0 0 0.78705132331200112 74 40 91 118
24445 0.25761052322656924 2.3549792226821196 1.7155180533245376 75 74 70 2.05263568519337 75 51 77 46 72 38 73 43 84 35
24443 -0.52219281988957977 2.2933101458331149 2.0245390326301695 0 0 0 0.11599169467611242 79 50 88 29
24428 0.17414508241610527 2.3353935284677712 1.5435845132478738 70 69 65 1.4686368814151372 75 8 82 11 77 10 68 4 69 2 80 11 63 4
24425 1.2572878087328905 3.7475634309936918 1.2835469829830024 61 64 44 1.3348664659967724 79 497 72 292 71 121
24424 0.077690179626130576 2.3362692501515774 2.4006668422948683 0 0 0 1.745226788911697 82 103 86 1247
24423 0.055507448454444296 1.8726508720251436 2.0738583765488561 199 190 209 0.39471166303424438 74 447 84 154
24422 0.10166090658788837 1.6800536944756985 1.9071294361225231 197 190 208 2.2628120506247975 82 444 74 443
24421 0.15935833221456563 1.708529957015825 1.9039461405908435 0 0 0 0.96938929935210116 75 492 79 193
24420 1.1631192758907216 3.0854224815856215 1.5859964757159017 66 61 66 0.037838934664626789 79 381 76 312
24418 1.9537990628762374 1.0886610752490764 4.2392001794407399 134 131 114 1.9998571135960599 78 193 74 314 76 285 73 291
24416 7.0882869756734399 3.0888122025173725 3.704620708071686 182 181 159 1.5788482989879542 78 93 74 130 77 114
24414 0.3371352497308836 1.0132783515427619 4.2632782475086994 102 73 42 1.420616216783912 77 62 72 67 75 69 76 54 73 66 71 51 68 30
24413 7.6269880421163023 3.3694146519284707 3.8144459843097467 124 123 92 2.0962016268188273 78 69 74 95 77 85 75 108 80 82
24410 0.59112847582489414 0.86622691864259271 4.4712355120578096 125 102 60 0.91156141420306469 82 375 70 493 72 360
24409 3.0053860819830218 0.97086415483937138 2.9478317092004773 117 90 61 0.17841121903315976 79 274 74 610
24408 3.9531059438741045 1.8021389195998778 3.6564608472583577 106 73 40 1.1870329260079155 78 417 79 504 74 595 76 311
24407 -1.7030286264141452 5.0005485192465544 -0.046520818268274276 94 69 30 1.7906655877677395 79 191 74 577 78 187 71 184 73 128
24405 -0.4714398919334713 2.1227132897017116 2.0776492500313544 154 111 156 0.5410945089986432 79 617 74 557
24403 -0.18307786980917529 2.527413594476938 2.6215340304273762 201 193 213 2.5074490322274889 82 406 74 540 72 108 80 157 75 400
24402 1.2836290991011301 0.75937524508120513 3.9865767788138076 118 99 60 0.76529183556132985 82 265 74 536
24400 0.93574891400666993 1.0304226350068564 4.2718621623516446 123 101 62 1.2556457320057068 74 529 76 388 68 281 65 288
24399 -0.69353842739466798 2.0906964035374651 3.0298922011678675 112 109 116 0.31092895052131059 79 597 74 527 78 484
24398 0.31104984256593088 1.0344026658413461 4.281188107156888 131 104 74 1.5045152370665924 78 248 74 512 72 254 76 189
24397 5.5192179176628651 2.2505003207693242 3.6190261821545886 83 55 31 1.2723565925622569 78 213 74 477
24396 4.1643948110233255 2.4369602653919671 3.0625921128440483 100 71 41 1.2799390949619984 78 426 79 252 74 471 77 362 72 402
24395 1.3461894475201628 1.0897045854241441 4.3277922488212628 171 152 109 0.50261931442473962 78 493 74 468 76 283
24393 -0.25302269268771421 2.5721335272418013 2.6247459035601315 128 119 138 2.0437462965934827 82 402 76 204 71 298 84 108 75 403 80 240
24385 4.5965158108603168 2.0984444841576355 3.3761692630772497 127 102 72 1.296858285529046 79 222 74 415 77 150 76 159 73 140
24382 -1.4503330920207624 1.7721192656438791 3.33193687190023 40 57 59 1.4507259164288153 70 748 73 345 58 247 76 325 60 172
24381 1.1784084207871404 0.9438492984243787 4.4187081853086259 171 152 109 0.31601020655005385 78 262 74 376
24380 0.33367792308499289 1.8498774900139066 1.5461039589673917 65 59 63 1.3165291625310267 70 145 82 325 74 365 77 341
24379 3.4407840834507706 1.8281110025131988 3.5740618330859157 112 98 83 0.63682994461796838 78 329 74 359 77 198 79 534
24377 -0.36870382598475249 2.4023845426839383 1.4956463864670488 42 36 34 0.97930139894087109 74 341 77 177 76 278
24374 1.2389678056287561 1.0468468380364939 4.3145012281590818 184 167 123 1.0944590536455117 70 522 75 224 78 263 74 303 72 351 76 282 71 306 68 275 69 172 67 238 65 212
24372 0.3829122638745997 0.77273737966592648 4.5467693479617246 122 98 62 1.0162017057322643 79 261 74 280 72 242 70 261
24371 3.8430264798363956 1.9708919505440932 3.485707152316412 130 96 59 0.61016200628698258 70 616 78 418 79 514 74 263 77 363 72 503 71 361
24370 5.1809277914639456 2.0511156926685561 3.7043734811594695 109 83 56 1.2839653647458769 82 226 74 236 76 160
24369 3.6661923796709273 1.6763265417197075 3.7584751084799191 140 102 63 0.5377857851806489 75 276 78 380 79 462 74 235 82 478 77 340 72 324
24367 -0.53760276166114063 2.3734590279420642 1.8411438459373108 0 0 0 0.57262429204397691 70 576 79 629 82 517
24366 -0.55773578525369194 2.7057270143627719 2.2655620953022 15 9 13 1.3224470472029299 78 378 74 212 73 239 71 158
24365 1.4088121269291052 1.0614070738982935 4.2388046631617948 142 133 109 2.7269739137125684 78 383 74 211 68 197
24362 0.25977482934232871 1.045408789644394 4.2654457793450682 123 121 109 1.1694121944208273 75 208 79 472 74 197 72 364 77 116 73 153 76 188
24361 -0.089896661871315273 1.0324245240083139 4.2436551114548058 85 85 85 1.2845558785941054 75 418 78 239 74 193
24360 0.40682516133642888 0.63120585605337665 4.7057232394218813 185 171 134 1.2511309399050983 75 199 78 238 79 254 74 188 77 211 72 223 76 175 73 148
24358 3.5893575896682575 1.5739670616958614 3.9623159051165606 112 73 36 1.7664991158251855 78 119 74 166 82 485
24356 4.0746014266107373 2.3692481473667586 3.0167884181264335 137 110 83 1.1573516986516137 78 214 79 221 74 153 82 209 77 195 72 173 76 121 73 138 71 189 69 204 80 135 84 85 83 133 85 198
24355 0.25912696775521787 2.3815754947737275 1.7556725792625691 185 160 189 2.0480552498285478 82 224 76 287 71 114 84 71 61 92
24353 0.34930848194623959 0.6330414017299002 4.7422258296915736 152 131 94 1.4828447966902267 79 169 74 126 72 147 76 126
24352 3.6633141769902284 1.9099040852938565 3.5125563089598075 120 85 47 0.59337773817795547 78 134 74 115 79 141 71 115
24351 3.8645939916127086 1.6550237314292375 3.8833502305503917 127 92 50 0.77839726496781592 78 200 79 211 74 114 77 140
24342 2.1209599831033974 1.1675371935619032 4.3387435376391066 137 128 90 1.5498681962504006 82 426 74 38 76 35
24340 0.49344834644281221 4.8901478382792627 0.074855227926328941 88 69 39 1.4489161800293275 75 30 78 29 72 27 76 26 73 31
24339 6.7266495669528883 4.008547219461855 3.276957274777482 152 137 106 2.3390158876489227 70 27 79 16 82 25 76 33 71 20
24332 1.4258254803255135 4.0927411160217666 1.2023304812251956 52 60 11 1.7376766471135365 82 490 77 344 79 367 73 266 69 144 71 117
24331 8.5393488789360941 4.9567055889041551 8.2271386023467539 133 104 70 1.2297800573041067 82 691 75 433
